# .PCD v0.7 - Point Cloud Data file format
VERSION 0.7
FIELDS x y z intensity
SIZE 4 4 4 4
TYPE F F F F
COUNT 1 1 1 1
WIDTH 1419
HEIGHT 1
VIEWPOINT 0 0 0 1 0 0 0
POINTS 1419
DATA ascii
-5.1393142 2.8864062 1.0488448 30
-5.0843058 2.8566806 2.1429548 20
-5.1431932 2.8909483 1.1863639 31
-5.0694995 2.8506901 2.2784905 26
-5.1355662 2.8890207 1.3242326 24
-4.9916472 2.809206 2.4030731 4
-5.1308727 2.8875594 1.4614916 18
-5.3582692 3.0167651 2.6142592 2
-4.0181117 2.2696357 0.71628457 1
-5.033546 2.8443654 1.597275 18
-3.9552612 2.235956 0.83744842 33
-5.0303245 2.8437018 1.7317889 20
-3.9453807 2.2312791 0.94667763 1
-5.0499492 2.8571241 1.8679378 23
-5.0147204 2.8383479 0.924362 26
-5.0320697 2.8493257 2.002043 24
-5.0992146 2.8885224 1.0516109 30
-5.0275755 2.8479414 2.1373105 22
-5.0844321 2.881321 1.1896201 28
-5.0353599 2.8546715 2.2749166 26
-5.0976324 2.8911526 1.3253493 24
-4.9697738 2.8197832 2.4009633 3
-5.0877137 2.8867006 1.4619336 20
-5.3065958 3.012116 2.6059241 2
-3.9656639 2.2583063 0.72531426 1
-4.9841161 2.8382788 1.5967399 14
-3.9272091 2.2373154 0.84106487 19
-4.9960561 2.847388 1.7308117 20
-3.9289517 2.2401261 0.947954 6
-5.0069933 2.8559389 1.8657283 26
-4.4109359 2.5159538 0.99627757 6
-5.0000863 2.8531542 1.9999278 24
-5.0619087 2.8896043 1.0542145 30
-4.9865127 2.8477182 2.1335473 22
-5.0466065 2.8832035 1.1914808 31
-4.9879737 2.8497055 2.2693005 25
-5.0637221 2.8941557 1.3263265 24
-4.9466643 2.828397 2.3985524 1
-5.0498319 2.8885541 1.462306 20
-5.2652779 3.0130126 2.5996728 2
-3.9103208 2.2439952 0.73503858 13
-4.9377565 2.8347499 1.5962511 14
-3.9330919 2.258888 0.83865386 3
-4.9670224 2.8538568 1.7300439 22
-3.9060225 2.2442479 0.95025158 11
-4.9663367 2.8546176 1.8636351 28
-4.3952298 2.5273685 0.99711388 62
-4.9451714 2.8447473 1.995697 24
-5.0276036 2.8933365 1.0564924 28
-4.9593053 2.8551819 2.1314569 22
-5.014523 2.8869722 1.1929924 30
-4.9418974 2.8463104 2.2639394 27
-5.0189514 2.8918564 1.3277224 24
-4.8956504 2.8219483 2.3913195 3
-5.0102654 2.8891816 1.4627016 19
-5.2206073 3.0116899 2.5927269 2
-3.9024644 2.2576303 0.73503858 13
-4.898406 2.834939 1.5958556 14
-3.8926725 2.2537806 0.84437996 5
-4.9120598 2.8451321 1.7282292 20
-3.9067461 2.2628407 0.94897521 13
-4.9321561 2.8579204 1.8620069 30
-4.7907748 2.7771144 0.94798547 6
-4.9127936 2.8489933 1.9935818 24
-4.9097409 2.8495121 2.1266484 22
-4.9698777 2.8844142 1.1953183 25
-4.9147778 2.8535836 2.2613866 43
-4.9690742 2.8862669 1.3293278 29
-4.8652563 2.8271003 2.3877032 19
-4.9794021 2.8945923 1.4629809 19
-5.1998472 3.0239525 2.5906429 2
-3.8962607 2.2722318 0.73469126 11
-4.8625698 2.836904 1.5955065 12
-3.9189339 2.2872868 0.8383525 1
-4.8641253 2.8400874 1.7266935 28
-3.8936851 2.2734625 0.94974107 9
-4.8997378 2.8620279 1.8604952 47
-4.7140756 2.754683 0.95613867 40
-4.8770061 2.8510332 1.991141 28
-4.8688617 2.8485546 2.1228855 20
-4.9420409 2.892525 1.1964812 27
-4.8619881 2.8456709 2.2550046 26
-4.9313712 2.8874354 1.3304447 29
-4.8110003 2.8180847 2.3798676 16
-4.9209561 2.8836441 1.4636325 19
-5.1348863 3.0102098 2.5795298 2
-3.8794181 2.2815042 0.73642778 5
-4.8285046 2.8396661 1.5951807 12
-3.9109251 2.3009534 0.8383525 1
-4.8335114 2.8448834 1.7258559 22
-3.8784888 2.2836926 0.95076215 4
-4.8513675 2.8576734 1.8579369 27
-4.7159429 2.7790112 0.95467526 56
-4.8378291 2.850836 1.9883747 22
-4.83319 2.8503754 2.1197495 22
-4.90096 2.8914959 1.1985744 25
-4.8344426 2.8533893 2.2524517 28
-4.8966589 2.8912628 1.3314219 25
-4.7802119 2.823631 2.376251 27
-4.8764224 2.8804617 1.4640979 19
-5.0972161 3.0120847 2.5739727 2
-3.8731246 2.296036 0.73608047 3
-4.7664595 2.8267419 1.5944827 25
-3.9092672 2.3193076 0.83714706 1
-4.7840133 2.8382809 1.7242506 44
-3.9881949 2.3670752 0.93314761 1
-4.7864251 2.8419709 1.8542156 52
-4.7643576 2.8299928 0.94756734 18
-4.7845063 2.8430908 1.9843068 46
-4.7684984 2.8347049 2.1130598 78
-4.8462191 2.8820517 1.2015979 27
-4.7664914 2.8357639 2.243772 56
-4.8624902 2.8940263 1.332399 27
-4.7465425 2.826139 2.3720317 24
-4.7787023 2.8452873 1.4652846 56
-5.0528278 3.0096991 2.5670271 2
-3.8464873 2.2984297 0.73990071 1
-4.7141409 2.8168874 1.5939008 22
-3.7233627 2.2257397 0.86879104 1
-4.7431993 2.8364968 1.7229942 44
-3.8692603 2.3147874 0.94974107 1
-4.7524905 2.8443067 1.8525875 52
-4.7805471 2.8610983 0.94443148 4
-4.7596607 2.8497245 1.9828424 26
-3.7912548 2.2708168 1.1692556 1
-4.758574 2.8513327 2.1130598 24
-4.810441 2.8835526 1.2033423 28
-4.740047 2.8413558 2.2412193 31
-4.8151546 2.8875201 1.3339345 25
-4.7134085 2.8276241 2.3678126 16
-4.8116102 2.8876789 1.4647028 21
-5.0254045 3.01718 2.5635538 2
-3.7983472 2.2867901 0.74823582 1
-4.7025661 2.832294 1.5938776 6
-3.6393635 2.1928053 0.88235271 22
-4.7195745 2.8447831 1.7224358 30
-3.7460392 2.2579725 0.96710026 16
-4.7310634 2.852834 1.8517735 30
-3.7401242 2.256186 1.0709109 21
-4.7121363 2.8436639 1.9792626 22
-3.73211 2.2531297 1.1741371 19
-4.7315669 2.8576419 2.1109691 26
-4.7820535 2.8881333 1.2046216 26
-4.7012377 2.8404458 2.2368793 27
-4.770834 2.8836322 1.3353306 27
-4.674747 2.8266671 2.3626893 13
-4.748455 2.8723693 1.4654243 26
-4.9811401 3.0143094 2.5566082 2
-3.7229872 2.2591646 0.76212764 1
-4.6516232 2.8237844 1.5933191 22
-3.613097 2.1942062 0.88566786 21
-4.6754503 2.8404841 1.7210398 30
-3.6584547 2.2226269 0.97909862 1
-4.6954837 2.8537755 1.8500291 25
-3.7339251 2.2702613 1.0707018 22
-4.6817446 2.8476648 1.9773099 13
-3.7276287 2.2682154 1.1738117 14
-4.6790872 2.8482862 2.1057429 20
-3.7008986 2.2528367 1.2776514 7
-4.6624918 2.8392997 2.2325397 13
-4.74367 2.889868 1.3360286 36
-4.62602 2.8193033 2.3557577 15
-4.7298622 2.8837216 1.4655406 22
-4.9705887 3.0316775 2.5566082 2
-3.7117183 2.2700903 0.76282227 1
-4.6656203 2.8546166 1.5936449 16
-3.6155334 2.2129993 0.88385963 27
-4.636529 2.8390417 1.7198532 22
-3.6388328 2.228132 0.98088562 1
-4.6480365 2.8472037 1.8474708 37
-3.7361529 2.2895176 1.0694475 30
-4.6343884 2.8410683 1.9737302 39
-4.6182542 2.8333974 2.0994711 47
-3.6943188 2.2674296 1.2775351 27
-4.6271944 2.8399925 2.2287104 51
-4.7097068 2.891767 1.3370057 29
-4.6009874 2.8261209 2.3530455 19
-4.6925058 2.8834615 1.4659129 20
-4.909637 3.0180669 2.5461893 2
-3.6882846 2.2743752 0.765948 1
-4.6403074 2.8614385 1.5934354 24
-3.6094701 2.2266438 0.88355821 26
-4.5976744 2.8373642 1.7186667 44
-3.6137626 2.2310348 0.98343843 1
-4.6018963 2.8421881 1.8450286 49
-3.7378893 2.309468 1.0681932 27
-4.6142678 2.8509417 1.9727539 22
-4.6303291 2.8630989 2.1021888 15
-4.5981984 2.8454516 2.2259023 23
-4.6735845 2.8932288 1.3380527 17
-4.5990033 2.8481688 2.3545523 12
-4.6552081 2.8829765 1.4662852 22
-4.8555393 3.0082164 2.5371594 2
-3.6836689 2.289315 0.76525337 1
-4.5805349 2.847805 1.5927606 44
-3.594569 2.2356811 0.88476372 37
-4.5860443 2.85234 1.7185968 32
-3.6430066 2.2666895 0.97782218 1
-4.5902519 2.8571799 1.8449124 31
-3.726428 2.3203988 1.0686114 25
-4.5733323 2.8488634 1.969825 22
-3.6152976 2.2529511 1.182273 1
-4.5764165 2.8518932 2.0967534 17
-4.6390858 2.8920727 1.2115989 33
-4.5579424 2.8425896 2.2213073 26
-3.6561496 2.2810674 1.3795134 13
-4.5756145 2.8558316 2.3521414 9
-4.5942197 2.8674438 1.4669833 34
-4.8049126 3.0001116 2.5288243 2
-3.6756549 2.3021595 0.76525337 14
-4.5558128 2.8534257 1.5925511 26
-3.575407 2.2402403 0.8868733 53
-4.5489626 2.8513463 1.7174801 34
-3.6686835 2.3004682 0.97271651 1
-4.5616455 2.8615143 1.8436332 36
-3.7170277 2.3316867 1.0688204 6
-4.5368452 2.8470607 1.9672215 22
-4.5495892 2.8572719 2.0946627 21
-4.5951505 2.8870039 1.2139246 27
-4.5316944 2.8471363 2.2187543 21
-3.6570268 2.2984974 1.3791643 29
-4.5544033 2.8636215 2.3500316 13
-4.5977249 2.8919816 1.4667972 22
-4.7577367 2.9937868 2.5211837 2
-3.6546743 2.3059278 0.76803178 34
-4.5255308 2.8565013 1.5922719 26
-3.5491767 2.2410948 0.8901884 34
-4.5018044 2.8437238 1.7159445 30
-3.7448876 2.3655903 0.95995235 19
-4.525126 2.8595603 1.8417726 34
-3.5945408 2.272373 1.0830362 1
-4.4999237 2.8458328 1.964618 22
-3.5864022 2.2689815 1.1835747 31
-4.5059733 2.8518612 2.0904818 21
-4.4999409 2.849143 2.2154357 16
-3.63885 2.3048317 1.3795831 27
-4.4992857 2.8509302 2.3418946 13
-4.5521317 2.8855276 1.4672859 24
-4.6790595 2.9671302 2.5069447 2
-3.6466026 2.3186712 0.76803178 29
-4.4919086 2.8572533 1.5919461 26
-3.4495869 2.195091 0.90676385 21
-4.4648728 2.8422472 1.7148278 30
-3.7299137 2.3743873 0.9609735 18
-4.4746981 2.8495975 1.8389816 36
-3.5765214 2.2784951 1.0842905 1
-4.474833 2.8518813 1.9631536 24
-3.5902264 2.2889872 1.1824358 39
-4.4607744 2.8451109 2.0860915 21
-3.6141896 2.3051538 1.2803261 55
-4.484951 2.8616323 2.2146697 31
-3.6459458 2.3271978 1.3789549 22
-4.4709768 2.8549123 2.3385797 21
-4.5083241 2.8798683 1.4677513 22
-4.642118 2.9664764 2.5013881 20
-3.6185873 2.318634 0.77219927 35
-4.4532857 2.854569 1.5915506 28
-3.4652045 2.2220607 0.90254468 25
-4.4414659 2.8491805 1.7142693 31
-3.7366304 2.3970315 0.95867592 22
-4.4378371 2.8479469 1.837121 36
-3.5802624 2.2984879 1.0828271 53
-4.4430475 2.8534794 1.9610382 21
-3.5838907 2.3025837 1.182273 28
-4.4340839 2.8499105 2.0840008 21
-3.5809271 2.3015628 1.2820704 46
-4.4315543 2.8493764 2.2080324 23
-3.6512487 2.3485618 1.3783965 22
-4.4260674 2.8480341 2.3322508 16
-4.4763842 2.8815145 1.4680538 22
-4.5671525 2.9410725 2.4878435 4
-3.6237085 2.3397982 0.76942092 30
-4.4164152 2.8527358 1.5911782 28
-3.4657309 2.2395079 0.90103775 12
-4.4163861 2.8549008 1.7136412 28
-3.7415674 2.4186752 0.95663369 19
-4.4144564 2.8547473 1.8361907 34
-3.5588577 2.3023272 1.0844996 28
-4.4062839 2.8516424 1.9584348 21
-4.4007363 2.8502321 2.081074 21
-3.5561137 2.3031938 1.2832333 63
-4.3966088 2.8486497 2.2042031 27
-3.6497369 2.3656411 1.3781173 22
-4.3978505 2.8516343 2.3289356 19
-4.4495196 2.8862407 1.4682865 20
-4.2710223 2.7715147 2.4277611 1
-3.6551411 2.3782132 0.76108587 13
-4.3796134 2.8506782 1.5908059 26
-3.7842963 2.4641283 0.84166759 12
-4.3829455 2.8550272 1.7126639 28
-3.7463982 2.4403837 0.95459139 14
-4.3843913 2.8570573 1.8347952 34
-3.5841243 2.3364601 1.0803185 4
-4.3679175 2.8484964 1.9556686 22
-3.5527031 2.3177445 1.1837375 40
-4.3757691 2.8557925 2.0791926 21
-3.5681164 2.3286877 1.2818378 42
-4.3617239 2.847713 2.2003739 27
-3.6330895 2.3729017 1.3784664 19
-4.3696637 2.8550713 2.3256207 21
-4.4193296 2.8886244 1.4685658 20
-4.2514315 2.7799394 2.4256773 1
-3.7110567 2.433075 0.74754125 3
-4.3579302 2.8582711 1.5906429 24
-3.8087335 2.4990156 0.83564019 20
-4.3412046 2.8494689 1.7113378 30
-4.3577018 2.8613856 1.8336322 36
-3.6274829 2.3828101 1.0738378 1
-4.339623 2.8516843 1.9538786 21
-3.5579166 2.3388917 1.1824358 30
-4.3474927 2.8590288 2.0768929 19
-3.5733111 2.3499062 1.2809075 22
-4.3285561 2.8476579 2.1968 28
-3.6398118 2.395458 1.3778381 17
-4.3200369 2.8442142 2.3183877 18
-4.3741465 2.880933 1.4690545 24
-4.2318339 2.7882597 2.4235935 1
-3.7078981 2.4486239 0.74649936 3
-4.3217297 2.8550694 1.5902706 24
-4.2078495 2.7808917 0.76120144 2
-4.3122215 2.8498695 1.7105002 30
-3.6932974 2.4417596 0.96020764 4
-4.3282051 2.8626034 1.8322368 34
-3.5764318 2.3662903 1.0792732 1
-4.31352 2.8550575 1.9522514 21
-3.5218861 2.331969 1.1852019 19
-4.3053207 2.8507097 2.0727119 21
-3.5089042 2.324254 1.2848613 13
-4.3025537 2.8510396 2.1942472 25
-3.6151884 2.3964713 1.3785361 37
-4.297399 2.8497818 2.3159766 12
-4.3467407 2.8825021 1.4693104 26
-4.2361827 2.8102524 2.4263718 3
-3.6730921 2.4440944 0.75205612 5
-4.2872639 2.8527675 1.5899216 22
-3.8990569 2.5954342 0.81605101 1
-4.2772927 2.8482854 1.7094532 26
-3.7392302 2.4909284 0.9517833 35
-4.2783108 2.8511212 1.8294458 34
-3.5751853 2.3825493 1.078437 1
-4.2874427 2.8582888 1.9506243 21
-3.4162886 2.2783806 1.1948023 24
-4.277143 2.8535776 2.0704122 21
-3.4243765 2.2855031 1.2902107 23
-4.2749262 2.8531785 2.1914392 20
-3.5839489 2.3929081 1.3795134 39
-4.273128 2.8541336 2.3132644 13
-4.3117094 2.8809929 1.4696594 24
-4.1985106 2.8064141 2.4204679 5
-3.6093378 2.4189787 0.76386416 3
-4.2523632 2.8510101 1.5895725 20
-3.7569692 2.5198212 0.84046209 7
-4.2523851 2.8531771 1.708825 26
-3.7490685 2.5154719 0.94897521 34
-4.2555704 2.8563912 1.8285155 35
-3.449604 2.3162889 1.0932801 3
-4.242691 2.849895 1.9472072 22
-3.396733 2.2825096 1.1959412 31
-4.2407446 2.8507347 2.0670671 21
-3.4018667 2.2868199 1.2912573 30
-4.2303743 2.8448367 2.1860781 20
-3.5523562 2.3897848 1.3804905 31
-4.2385345 2.8524747 2.3087437 15
-4.2900147 2.888207 1.4698224 17
-4.1903224 2.8221531 2.4208152 3
-3.3086891 2.2342608 0.82603019 5
-3.7336309 2.5221589 1.5824285 11
-3.7235775 2.516314 0.84498274 3
-3.7108581 2.5086632 1.6864195 8
-3.7369785 2.5263216 0.94948572 16
-4.2257271 2.8578055 1.8271201 35
-3.4200804 2.3138278 1.0959978 15
-4.2079544 2.847928 1.9447665 21
-3.3788407 2.287647 1.1969175 44
-4.2192397 2.8577135 2.0656037 21
-3.3872499 2.2942026 1.2917224 37
-4.2056384 2.8495722 2.1837804 23
-3.5291018 2.392077 1.3811188 43
-4.1958237 2.8450596 2.3027163 19
-3.742022 2.5383041 1.4773853 89
-4.1755562 2.8334451 2.4197733 1
-3.3269255 2.2635226 0.82047349 31
-3.7033303 2.521508 0.84709233 14
-3.7169468 2.5317273 1.6870477 89
-3.7051852 2.5237162 0.95305973 16
-4.1959262 2.8590474 1.8257246 35
-3.3889732 2.3100677 1.0989246 18
-4.1716371 2.8446312 1.942163 24
-3.3576617 2.2904403 1.1982193 56
-4.1763792 2.8500009 2.0614228 21
-3.3771696 2.3054764 1.2918388 46
-4.1678147 2.8452225 2.1794407 25
-3.5289831 2.4100173 1.3807697 87
-4.1532154 2.8373818 2.296689 20
-3.7281857 2.5479658 1.4774551 63
-4.1477551 2.8357754 2.4159532 1
-3.3088601 2.2690189 0.82255721 39
-4.1315618 2.8331788 1.5882926 15
-3.3129911 2.2727008 0.91761321 1
-4.1200962 2.8274293 1.7044975 26
-4.1623759 2.8585832 1.8240966 33
-3.3706474 2.3157148 1.100179 15
-4.1485386 2.8501444 1.9408612 22
-3.3496454 2.3021476 1.1982193 61
-4.133625 2.8420241 2.0572414 21
-3.3477161 2.3025413 1.2933505 44
-4.1475534 2.8537331 2.1779089 28
-3.5135407 2.4184029 1.3810489 82
-4.1362748 2.848099 2.2954836 22
-4.1870604 2.8830681 1.4708463 24
-4.0907917 2.8178349 2.4058814 15
-3.2879555 2.2715986 0.82533562 35
-4.1441832 2.8642201 1.5886184 20
-3.2997603 2.281455 0.91851735 13
-4.1217108 2.8497517 1.7049861 30
-3.2710159 2.2624261 1.018157 1
-4.119535 2.8503733 1.8217707 38
-3.3510947 2.3195431 1.1016424 22
-4.1233139 2.8551183 1.9393969 29
-3.3379087 2.3121386 1.1985447 64
-4.110599 2.847374 2.0555692 21
-3.3265288 2.3051162 1.2942808 42
-4.1082225 2.847852 2.1733139 28
-3.5017931 2.4283738 1.3811885 79
-4.11656 2.8557591 2.2936752 17
-4.1457496 2.8760087 1.4712884 24
-4.0712214 2.8253593 2.4037976 20
-3.2832401 2.2853119 0.82464105 34
-4.1018338 2.8550973 1.588153 21
-3.2937994 2.293515 0.91821593 43
-4.0936956 2.8515558 1.7042183 31
-3.2826293 2.2874389 1.0150936 1
-4.0866289 2.8487508 1.8201427 41
-3.377651 2.3545289 1.0972521 10
-4.0843925 2.8482525 1.9364679 30
-3.3367622 2.3277569 1.1978939 64
-4.0875854 2.8525989 2.0538967 22
-3.3250108 2.3212857 1.2938156 39
-4.0759845 2.8455622 2.16974 27
-3.4904435 2.4376841 1.3813281 48
-4.0859971 2.8546741 2.2897573 13
-4.1209326 2.8801522 1.4714979 24
-4.0403504 2.8248808 2.3992827 22
-3.2788689 2.2984476 0.82394648 33
-4.0672822 2.852175 1.587804 21
-3.2647319 2.2902367 0.92213374 42
-4.0526319 2.844012 1.7028921 35
-3.2847676 2.3051486 1.0135618 1
-4.0689893 2.8565509 1.8195612 46
-3.4719584 2.4383237 1.0840815 2
-4.0450664 2.8418651 1.9335389 27
-3.318831 2.3325126 1.1988702 60
-4.0613313 2.8554111 2.051806 19
-4.0449347 2.8449368 2.1664212 27
-3.4753742 2.4452527 1.3816073 48
-4.051755 2.8518491 2.2852368 15
-4.0945029 2.8830049 1.4717306 26
-4.0111423 2.8253565 2.3951154 26
-3.2659996 2.3064711 0.82498831 28
-4.0475016 2.8594303 1.5876644 19
-3.2405703 2.2902086 0.92514747 39
-4.0214624 2.8431408 1.7019846 37
-3.2702219 2.3120201 1.014583 1
-4.0443225 2.8603611 1.8185146 52
-3.4894061 2.4688087 1.0807366 4
-4.0253592 2.8490582 1.9325627 24
-3.2976542 2.3348689 1.2001719 67
-4.0318627 2.8557737 2.0492973 19
-3.4134097 2.4177225 1.2863731 1
-4.0268874 2.8533051 2.1651449 22
-3.4733398 2.4619935 1.3813281 46
-4.0079064 2.841958 2.278908 17
-4.0615778 2.8810809 1.4720564 26
-3.9884043 2.8302231 2.3923368 24
-3.2450891 2.3087227 0.82776672 30
-4.022831 2.863106 1.5874549 21
-3.1697412 2.2567832 0.93690097 50
-3.9919767 2.8432462 1.7011471 35
-3.7242267 2.6525438 0.94157195 9
-4.0050435 2.8536065 1.8164214 52
-3.2426686 2.3112655 1.111468 1
-4.0040283 2.8549912 1.9314237 21
-3.2975976 2.3521531 1.1993583 13
-3.9878678 2.8455679 2.0449071 19
-3.3626919 2.3994699 1.2893966 1
-4.0039864 2.8581243 2.1631026 26
-3.4744849 2.4810715 1.3809093 49
-3.977047 2.8409905 2.2749901 20
-4.0254626 2.8766372 1.4724287 27
-3.956069 2.8280911 2.3874748 24
-3.1825805 2.281024 0.83957481 8
-3.9819317 2.85499 1.5870128 22
-3.1634507 2.2689867 0.93659961 42
-3.9657886 2.8455102 1.7004491 35
-3.7230043 2.6713092 0.94029552 11
-3.9723494 2.8512697 1.8147933 52
-3.2071147 2.3028483 1.1150219 3
-3.9810865 2.859647 1.9301219 19
-3.1890023 2.2915304 1.2094468 17
-3.9649901 2.8501837 2.0432348 19
-3.3445687 2.4042015 1.2900944 1
-3.9682176 2.8535542 2.159018 26
-3.4706709 2.496686 1.3806999 52
-3.9510577 2.843307 2.2719765 20
-3.515501 2.530798 1.479596 13
-3.9253953 2.8269196 2.3829598 22
-3.1522417 2.2759786 0.84443694 13
-3.949245 2.8524787 1.586687 22
-3.1523068 2.2776988 0.93720233 9
-3.9412515 2.8487992 1.6998209 35
-3.6445274 2.6343224 0.95127267 1
-3.946193 2.8534198 1.8136305 52
-3.1990571 2.3140287 1.1150219 7
-3.9420118 2.8524919 1.927193 19
-3.1777546 2.3003104 1.2097722 40
-3.9421294 2.8546729 2.0415623 21
-3.2908769 2.3830717 1.2933505 1
-3.9261038 2.8441138 2.1539123 27
-3.4586973 2.5064399 1.3808396 43
-3.9315038 2.8501186 2.2701683 22
-3.5050263 2.5418801 1.4796193 22
-3.9011552 2.8301957 2.3798342 24
-3.6778812 2.675081 0.72809267 11
-3.9214766 2.8533032 1.586431 24
-3.1491325 2.2921791 0.93629819 27
-3.9070461 2.8448913 1.698774 39
-3.9200706 2.8554208 1.8124676 49
-3.9062574 2.8474479 1.9245895 19
-3.1600425 2.3043413 1.2107486 56
-3.914464 2.8555229 2.0392628 22
-3.224468 2.3521845 1.297537 20
-3.9049356 2.8496163 2.1521254 30
-3.4305553 2.5043547 1.3816772 30
-3.9023702 2.8498321 2.2665517 20
-3.4912877 2.5505602 1.4796891 21
-3.8721702 2.8298492 2.3756666 28
-3.7288959 2.7321379 0.71489537 7
-3.8921368 2.8527875 1.5861517 26
-3.153867 2.3125114 0.9338873 37
-3.8777518 2.8443253 1.6979363 37
-3.8972011 2.8596373 1.8115373 40
-3.1651859 2.3233597 1.1173216 54
-3.881834 2.8504465 1.923125 22
-3.1519794 2.3153582 1.2107486 43
-3.8788271 2.8503244 2.0359178 26
-3.2146289 2.3622437 1.2976532 26
-3.8805811 2.8526549 2.149828 46
-3.4169612 2.512763 1.3818865 31
-3.8732872 2.8493774 2.2629354 17
-3.4630351 2.5485065 1.4799683 20
-3.8511651 2.8351753 2.3732357 16
-3.69715 2.7287629 0.7197575 18
-3.87411 2.8604178 1.5860354 36
-3.1505473 2.3270299 0.93298316 4
-3.8517239 2.8459659 1.6972383 43
-3.7188463 2.7477851 0.93493456 1
-3.8598993 2.8530493 1.8095603 60
-3.1666529 2.3414891 1.1160672 48
-3.8558345 2.8521252 1.9214979 32
-3.1518896 2.3322759 1.2099349 40
-3.841677 2.8437278 2.0323639 30
-3.1935258 2.3639464 1.2985835 28
-3.8530643 2.8531983 2.1470196 30
-3.2925291 2.4390123 1.386912 31
-3.8379014 2.8440449 2.2581134 16
-3.4332325 2.5450969 1.4802709 27
-3.8190958 2.8321762 2.3683734 3
-3.6876025 2.7416515 0.7197575 31
-3.8336132 2.8512466 1.5855932 28
-3.7959495 2.8242631 0.8088181 20
-3.8305423 2.8510396 1.6967498 41
-3.7235537 2.7714088 0.93263704 19
-3.8371058 2.8569655 1.80863 48
-3.1552699 2.350152 1.1164854 50
-3.8330667 2.85604 1.9201962 29
-3.1517208 2.3492196 1.2091213 56
-3.8221598 2.849987 2.0311093 30
-3.1624334 2.3589232 1.3002115 23
-3.8208203 2.8500273 2.1434457 28
-3.274384 2.4433179 1.3873308 30
-3.8184438 2.850328 2.2563052 19
-3.4163153 2.5510838 1.4803872 25
-3.8328559 2.8631713 2.3735828 1
-3.6712234 2.7504253 0.72114676 26
-3.806031 2.8514211 1.5853373 29
-3.7306926 2.7959952 0.81936616 22
-3.8029749 2.8512044 1.695982 43
-3.7228923 2.7921789 0.93110532 27
-3.810638 2.8590279 1.8074671 48
-3.1720879 2.3808048 1.1131405 41
-3.7943776 2.847863 1.9172673 30
-3.184947 2.3913252 1.2048907 23
-3.8026454 2.856144 2.029855 32
-3.157373 2.3723457 1.299979 22
-3.792907 2.8509009 2.1406376 26
-3.247833 2.4420898 1.3880986 27
-3.7937496 2.8536086 2.2535927 24
-3.3978 2.5557804 1.4805268 25
-3.8511677 2.8978486 2.3798342 1
-3.6710331 2.7703421 0.71906298 16
-3.777998 2.8520966 1.5850813 26
-3.3054619 2.4962754 0.8986268 1
-3.7701719 2.8482563 1.6950048 45
-3.2683713 2.4691603 1.0028399 2
-3.7862985 2.8614776 1.8064206 51
-3.1939042 2.4146543 1.1091684 31
-3.761656 2.8449173 1.9149892 30
-3.7731194 2.8556581 2.0273464 27
-3.1665852 2.3966069 1.2986999 27
-3.7592099 2.8461628 2.1368084 23
-3.2233548 2.4413438 1.3887966 22
-3.7585518 2.847729 2.248771 26
-3.3804412 2.562176 1.4806432 26
-3.776171 2.8631551 2.3655951 11
-3.2473824 2.4684715 0.81074917 4
-3.7473238 2.8495312 1.5847788 27
-3.2636824 2.4826608 0.90495563 15
-3.7411199 2.8468735 1.6941671 45
-3.2692044 2.4877605 1.0013082 17
-3.7604003 2.8625832 1.8052576 54
-3.2503362 2.4751959 1.100597 13
-3.7390175 2.848366 1.9136875 30
-3.752789 2.8598936 1.144848 3
-3.7473104 2.8567526 2.0252559 22
-3.1963081 2.4366975 1.2959089 6
-3.7397873 2.8520513 2.1352768 27
-3.2195816 2.4562173 1.3885872 21
-3.7234404 2.8416393 2.2439489 26
-3.3587599 2.5642529 1.4808294 26
-3.7379785 2.8547995 2.3593435 19
-3.2137234 2.4606342 0.81630594 5
-3.7310038 2.8577306 1.5846857 30
-3.2377331 2.4808095 0.90827066 15
-3.7184677 2.8501885 1.6936088 39
-3.7282028 2.8586833 1.8036295 51
-3.2479897 2.4913683 1.0997608 15
-3.7195628 2.8541205 1.9127111 30
-3.7491076 2.877831 1.1441971 5
-3.7168076 2.8540666 2.0225382 22
-3.715652 2.8542118 2.1329792 28
-3.2252522 2.4784019 1.387959 19
-3.6946878 2.8401594 2.2403326 26
-3.3275948 2.5588932 1.4811552 23
-3.7061348 2.851017 2.3544817 19
-3.2207112 2.4838657 0.81283295 11
-3.6925046 2.848747 1.5842669 30
-3.2400103 2.5005522 0.90616107 13
-3.7021675 2.8582654 1.6933296 37
-3.2423353 2.5032511 1.0028399 39
-3.6960793 2.854593 1.8020015 51
-3.3494518 2.5878167 1.0851269 8
-3.6906507 2.852459 1.9107586 29
-3.5955346 2.7799459 1.1590044 1
-3.6879408 2.8524213 2.0200295 22
-3.3403118 2.5835493 1.2840474 1
-3.6868398 2.8525982 2.1299157 32
-3.2418714 2.5092196 1.3868423 28
-3.6816247 2.8506181 2.2397296 25
-3.3091559 2.5631459 1.4812948 24
-3.6634648 2.8386028 2.3471885 24
-3.2275767 2.5071752 0.80936003 4
-3.6667471 2.8493481 1.5840342 32
-3.4201417 2.6586752 0.86969513 1
-3.6732345 2.8564463 1.692492 35
-3.2351441 2.5157704 1.0025847 30
-3.6750605 2.8588955 1.8011875 57
-3.710856 2.8877828 1.0357894 40
-3.6586504 2.8481817 1.9084805 27
-3.7179174 2.8953605 1.1453362 39
-3.6732543 2.8616102 2.0194023 26
-3.7014146 2.8835483 1.2567192 24
-3.6627779 2.8544762 2.1276183 40
-3.2504323 2.534039 1.3860744 27
-3.6669745 2.8598044 2.2388256 15
-3.2923043 2.5685303 1.4814111 20
-3.6411119 2.8416791 2.3444099 29
-3.5647299 2.7890813 0.73191291 39
-3.6363053 2.8461061 1.5837317 34
-3.5602891 2.7876108 0.84076345 1
-3.6380639 2.8495309 1.6913753 31
-3.232589 2.5319407 1.0015635 12
-3.6493416 2.8593934 1.8000245 60
-3.6788371 2.8835402 1.0387162 35
-3.6330001 2.848635 1.9068534 25
-3.6873977 2.8923287 1.1474515 39
-3.639771 2.8559973 2.0162663 26
-3.6834724 2.8902884 1.2573007 43
-3.6247063 2.8451977 2.123023 28
-3.4286408 2.6922655 1.3777684 1
-3.6212082 2.8444963 2.231894 16
-3.286464 2.5824776 1.4813646 12
-3.6172345 2.8434172 2.3412843 35
-3.56165 2.8057625 0.73052377 28
-3.6142819 2.8482466 1.5835454 35
-3.5432615 2.7932816 0.84227037 1
-3.6066222 2.8442519 1.6903981 35
-3.2257326 2.543875 1.0013082 1
-3.6225972 2.8578756 1.7987454 51
-3.6598859 2.8883302 1.0399705 35
-3.6078875 2.8483145 1.9052262 28
-3.6527567 2.8847723 1.1500549 43
-3.6131117 2.8544881 2.0139668 32
-3.6629012 2.8938234 1.2581147 38
-3.6043572 2.848592 2.1212361 32
-3.5514019 2.807749 1.3719052 16
-3.5915959 2.8405452 2.2279763 18
-3.2935658 2.6057706 1.4811319 11
-3.5985184 2.8480625 2.3392005 28
-3.5456626 2.8132813 0.73191291 5
-3.5917854 2.8508999 1.5833594 35
-3.5443285 2.814239 0.84016079 1
-3.5778899 2.8419056 1.6895604 35
-3.2245998 2.5612884 1.0000317 2
-3.5938396 2.8555989 1.7973499 63
-3.6342113 2.8887107 1.0420611 37
-3.588562 2.8534479 1.9042499 28
-3.6270638 2.8850973 1.1516821 42
-3.5860059 2.8534589 2.0116673 34
-3.6340301 2.8916728 1.2595102 40
-3.5881834 2.8562145 2.1202149 31
-3.6322689 2.892344 1.3678569 52
-3.5739264 2.8469045 2.2264695 26
-3.3000901 2.6297143 1.4808991 13
-3.5808544 2.8544679 2.3374641 14
-3.5081258 2.8035071 0.73816419 1
-3.5630677 2.848434 1.5830801 34
-3.5576451 2.8451171 0.83564019 1
-3.5663881 2.8531284 1.6894907 38
-3.6152713 2.8922353 0.93416876 61
-3.5620265 2.8506601 1.7957219 72
-3.6085782 2.8889482 1.0441517 37
-3.5692434 2.8584812 1.9032736 28
-3.6014144 2.8852766 1.1533093 42
-3.555846 2.8497884 2.0089495 37
-3.5958695 2.8818645 1.2616034 42
-3.5580711 2.8525927 2.1168962 28
-3.6112366 2.8962507 1.3683455 40
-3.542377 2.8420408 2.2222502 26
-3.317404 2.6624985 1.4805036 2
-3.5616536 2.8595502 2.3353801 15
-3.4660959 2.7898018 0.74545747 1
-3.5312953 2.8432956 1.5827543 35
-3.5245957 2.8389139 0.84016079 1
-3.5423987 2.854274 1.6888624 40
-3.5804389 2.8849247 0.93825328 37
-3.542727 2.8555584 1.7950242 81
-3.5721493 2.8803027 1.0477057 40
-3.5328681 2.8496468 1.9005075 30
-3.5851157 2.8928235 1.1539602 42
-3.5381377 2.8559363 2.0079041 35
-3.571805 2.8831122 1.26265 43
-3.5249431 2.846302 2.1130672 27
-3.576226 2.8887429 1.3694623 40
-3.5232067 2.8469336 2.2204418 30
-3.3065352 2.6728044 1.4805268 1
-3.5225513 2.8484354 2.3287816 19
-3.4578667 2.8031244 0.74511021 1
-3.5073698 2.8442671 1.5825448 34
-3.445569 2.7951477 0.85372245 7
-3.5153413 2.8527677 1.6880947 52
-3.5580246 2.8874061 0.94029552 34
-3.5172362 2.8553236 1.7938612 90
-3.5466328 2.8802149 1.0497961 40
-3.5105219 2.8519063 1.8992057 36
-3.5502448 2.885205 1.1565636 43
-3.5096269 2.8532133 2.0053954 37
-3.5503709 2.8873661 1.2634641 43
-3.5088305 2.8535829 2.112046 28
-3.5397623 2.879765 1.3706489 27
-3.4948461 2.8442376 2.2168255 30
-3.3437119 2.722209 1.4798287 1
-3.5049503 2.8544948 2.3270452 24
-3.4475701 2.8157787 0.74511021 1
-3.4834795 2.8451073 1.5823354 33
-3.4235413 2.7971509 0.85613346 1
-3.4744096 2.8397231 1.6866987 45
-3.5259187 2.8828478 0.94386953 34
-3.4990201 2.8618755 1.7932798 81
-3.5252767 2.884378 1.0512595 40
-3.4820325 2.8489957 1.897253 36
-3.5216417 2.8824286 1.1585163 36
-3.481178 2.8503258 2.0028868 35
-3.5402706 2.8997416 1.2634641 33
-3.4860725 2.8563664 2.1100037 32
-3.2138293 2.6342375 1.3848879 9
-3.4629931 2.8394766 2.2126064 27
-3.0449991 2.496743 1.4841803 29
-3.4705992 2.8467264 2.3214884 29
-3.2597492 2.681402 0.78574383 1
-3.4699395 2.8553154 1.5822889 16
-3.0133224 2.4804592 0.93509275 1
-3.4336123 2.826427 1.6853027 17
-3.010509 2.4790258 1.028113 11
-3.0128143 2.4818068 1.7573463 15
-3.0178418 2.4868312 1.118994 28
-3.4669523 2.857935 1.8967649 18
-3.00508 2.4780777 1.2120502 33
-3.4589307 2.8523364 2.0012143 32
-3.0187826 2.4902616 1.3020723 53
-3.4546614 2.8508422 2.1064296 31
-3.4469633 2.8465111 2.2114007 22
-3.0069671 2.4831612 1.4846225 49
-3.443938 2.8450253 2.3176682 35
-2.9894903 2.4766393 0.84547883 28
-2.9984419 2.4840553 1.5753077 15
-3.0111694 2.4954846 0.9338873 50
-3.0128784 2.497788 1.6666664 27
-2.9987833 2.4869869 1.0286236 55
-3.0118167 2.498682 1.7579277 24
-3.0019248 2.4904752 1.1200393 50
-3.0831792 2.5587959 1.8570619 8
-2.9891772 2.4816628 1.2128639 51
-3.4351821 2.8529551 1.9993328 25
-2.9854991 2.48037 1.3039329 48
-3.4268792 2.8470712 2.1033664 31
-3.0006011 2.4938021 1.3937523 57
-3.4299026 2.8516057 2.2098939 18
-2.9782917 2.4770191 1.4849249 43
-3.4203584 2.8456922 2.3145425 36
-2.9767232 2.4827547 0.84652072 46
-2.9743974 2.481694 1.575075 22
-2.9842253 2.4907775 0.9375037 59
-2.9688516 2.4788263 1.665061 14
-2.9752929 2.4842043 1.0311763 52
-2.995852 2.5022562 1.7573463 33
-2.961159 2.4741566 1.1244295 46
-3.1843503 2.661586 1.8687775 19
-2.9667337 2.4805737 1.2143283 52
-3.4099457 2.8521674 1.9972422 27
-2.9650059 2.4800081 1.3048632 45
-3.3956218 2.8411951 2.0997922 31
-2.9704201 2.4862995 1.3947295 30
-3.4108317 2.8559463 2.2080855 21
-2.9650278 2.4835477 1.4849948 21
-3.390779 2.8411684 2.3100276 33
-2.9559741 2.4829948 0.84929907 41
-2.958061 2.4856286 1.5749587 36
-2.9497836 2.4795516 0.94262701 59
-2.9525325 2.4827418 1.6647121 16
-2.9559765 2.4856379 1.0329634 50
-2.9794595 2.5062723 1.7567648 30
-2.9433727 2.476795 1.1256838 46
-3.2665408 2.7497077 1.8785405 6
-2.9443338 2.4793584 1.2157928 55
-3.3862772 2.8525207 1.9953607 30
-2.9593844 2.4929163 1.3046306 26
-3.3735487 2.8428042 2.0977502 31
-2.9418559 2.4799056 1.3956369 30
-3.3796809 2.8499906 2.2038665 22
-2.9303546 2.4719605 1.4853903 23
-3.3778303 2.8504467 2.3093331 26
-2.9352591 2.4831214 0.85207742 37
-2.9554727 2.5011067 1.5750517 23
-2.9260199 2.4770584 0.94564074 50
-2.9331708 2.4839909 1.6642234 14
-2.9291167 2.4805577 1.0360267 48
-2.9737396 2.5192385 1.7569973 24
-2.9225702 2.4767659 1.1273563 45
-3.2766891 2.7778506 1.8806559 9
-2.9204586 2.4767282 1.2174199 57
-3.3398976 2.8334408 1.9903433 9
-2.9197819 2.4779072 1.3069564 22
-3.3545303 2.8468616 2.0962183 37
-2.9194674 2.478518 1.396265 28
-3.3471069 2.842572 2.1993461 25
-2.9110394 2.4731107 1.4855533 24
-3.3633566 2.8583949 2.3082912 22
-2.9126468 2.4823647 0.85520315 30
-2.9558568 2.5191915 1.5751914 16
-2.9083278 2.4795604 0.94744897 48
-2.9199197 2.4903233 1.6640141 19
-2.9018967 2.475827 1.0390902 47
-2.9523368 2.5197515 1.756067 24
-2.9074216 2.4822946 1.1281925 46
-3.0213811 2.5795908 1.8542957 23
-2.8996689 2.4765508 1.2187216 56
-3.2831063 2.8050282 1.9838626 19
-2.8974543 2.4764087 1.3080029 25
-3.341058 2.856559 2.0957079 32
-2.907326 2.4866025 1.3964047 28
-3.3246474 2.8445377 2.1969349 30
-2.887193 2.4702556 1.485786 24
-3.3324089 2.8521872 2.3034289 26
-2.8890181 2.4796886 0.85867608 18
-2.919292 2.5065584 1.5747725 15
-2.8992207 2.4902027 0.94744897 50
-2.9051447 2.4952908 1.6637349 16
-2.8872187 2.4807706 1.0401113 50
-2.9192965 2.5092187 1.7542064 11
-2.8806407 2.4768672 1.1307012 48
-2.9393661 2.5282533 1.8464851 27
-2.8849614 2.4814579 1.2193725 56
-3.286865 2.8281474 1.9857441 13
-2.8751731 2.4747853 1.3090496 26
-3.3145316 2.8539672 2.0928998 35
-2.8849986 2.4849958 1.3970329 30
-3.3062079 2.8478048 2.1951268 33
-2.8724918 2.4750979 1.4858791 26
-3.3015468 2.8457983 2.2985668 31
-2.8852501 2.4931185 0.85763419 2
-2.903399 2.5096865 1.5746561 11
-2.864027 2.4765253 0.95287365 48
-2.8908062 2.4996815 1.6634556 13
-2.8609731 2.4747586 1.0431747 50
-2.8958611 2.505821 1.7530435 25
-2.8543653 2.4707842 1.1332099 49
-2.9249382 2.5327675 1.8458344 8
-2.8676751 2.483182 1.2203488 55
-3.2849855 2.8455434 1.9867895 22
-2.8548799 2.4738452 1.3099799 28
-3.2855635 2.848052 2.089581 31
-2.8556004 2.4762166 1.39801 31
-3.278821 2.8432097 2.1915102 25
-2.8552039 2.476747 1.4860187 26
-3.2787032 2.845113 2.2954412 35
-2.860621 2.4884524 0.86145449 1
-2.8875172 2.5127363 1.5745398 12
-2.837903 2.4704311 0.9564901 53
-2.8519158 2.4835043 1.6620597 19
-2.8587351 2.4894428 1.0421536 25
-2.8724806 2.5022955 1.7518806 28
-2.8371587 2.4723954 1.1344643 52
-2.9480777 2.5699604 1.8492514 13
-2.8379567 2.4748354 1.2226269 53
-3.2810287 2.8622222 1.9876256 45
-2.8376331 2.4754236 1.3106776 25
-3.2536819 2.8393676 2.0857518 35
-2.8277988 2.4685845 1.3989174 33
-3.2584524 2.8455334 2.1894007 31
-2.8344929 2.4761722 1.4862049 26
-3.2583702 2.8474681 2.29301 35
-2.8430274 2.4906363 0.86353821 1
-2.8666968 2.5122552 1.5743536 11
-2.8262889 2.4777155 0.95709282 13
-2.8342121 2.4855378 1.6616409 40
-2.8261652 2.4784806 1.0462381 30
-2.8622282 2.5109897 1.7517643 31
-2.8225315 2.477036 1.1353004 50
-2.8701804 2.5197408 1.8417664 3
-2.8143232 2.4715722 1.2242541 57
-3.2471089 2.8526537 1.9842807 40
-2.831975 2.4879496 1.3104451 31
-3.2452412 2.8520176 2.0860071 37
-2.8176639 2.4771202 1.3989873 39
-3.232167 2.8425279 2.1860857 25
-2.8138201 2.4754839 1.4863909 27
-3.2365823 2.8484151 2.2902317 37
-1.2761071 1.1258314 1.2299359 2
-2.847414 2.5129833 1.5741907 11
-2.8087289 2.4797153 0.95890111 35
-2.8165305 2.4874763 1.6612221 53
-2.8056026 2.4778252 1.0482804 55
-2.8369865 2.5064242 1.7504852 41
-2.8123765 2.4855571 1.1355095 24
-2.8374734 2.5086184 1.8391629 7
-2.7967198 2.4734576 1.2252303 53
-3.2162747 2.8455198 1.9813539 36
-2.7978508 2.4753294 1.312422 32
-3.2204123 2.8501811 2.0834541 33
-2.7925379 2.4723661 1.399755 44
-3.2133441 2.8459275 2.1842773 21
-2.7842054 2.4667242 1.4867167 24
-3.2089319 2.844018 2.2860641 35
-1.3384281 1.1891477 1.2143075 1
-2.8191922 2.5056365 1.5738882 5
-2.7971015 2.4868765 0.95950383 42
-2.7988691 2.4893229 1.6608033 31
-2.7910073 2.4823306 1.0493015 7
-2.8192699 2.5083487 1.7497874 24
-2.7843685 2.4781671 1.1382272 12
-2.8420985 2.5304375 1.8406274 3
-2.7806251 2.4765766 1.2260439 48
-3.1974125 2.8487895 1.9800996 36
-2.7757771 2.4731262 1.3134686 28
-3.1941543 2.8468869 2.080646 35
-2.7868738 2.4847598 1.3996154 46
-3.1974883 2.8518631 2.1830719 23
-2.7666249 2.4684386 1.4868565 27
-3.1842902 2.8420875 2.2825913 37
-1.334269 1.1938125 1.2143075 1
-2.7999976 2.5061257 1.5737253 8
-2.7736735 2.4834366 0.96251756 9
-2.7946293 2.5030782 1.6610126 16
-2.7656393 2.4779825 1.0521096 35
-2.8134708 2.5208392 1.75002 27
-2.7623708 2.4759233 1.1401088 40
-2.9846318 2.6760764 1.8572246 13
-2.7645438 2.4796131 1.2268575 55
-3.1770856 2.8506351 1.9786361 33
-2.754807 2.472614 1.3143989 30
-3.1689379 2.8453231 2.0780933 41
-2.7554431 2.4749224 1.4006624 39
-3.1757474 2.852437 2.180661 23
-2.7520406 2.4727354 1.4869494 29
-3.1728849 2.8518689 2.282244 27
-1.3401258 1.2079258 1.2118765 1
-2.777426 2.5043187 1.5735159 15
-2.7351897 2.4670999 0.96854502 38
-2.7809842 2.5092874 1.6608033 16
-2.7594833 2.4907608 1.051599 57
-2.7923555 2.5204318 1.7490897 35
-2.73999 2.4740348 1.1419903 22
-3.0739138 2.7765193 1.8681266 17
-2.7436051 2.479037 1.2281593 40
-3.1607132 2.8569264 1.9777999 30
-2.7398019 2.4773381 1.314864 28
-3.1467199 2.8462729 2.076051 41
-2.7256038 2.4662309 1.4016396 41
-3.1447456 2.8454864 2.1764417 24
-2.7370288 2.4774365 1.4870425 27
-3.1551113 2.856868 2.2805073 22
-1.3415225 1.2181252 1.2104874 3
-2.7534254 2.5010355 1.5732832 16
-2.7349083 2.4850869 0.96673673 63
-2.7485394 2.4974728 1.6596866 37
-2.7258189 2.4776952 1.0559388 51
-2.7860532 2.5333359 1.7493223 57
-2.7220762 2.4760299 1.1432446 24
-3.0445507 2.7703261 1.8660113 11
-2.7113457 2.4671333 1.2307627 11
-3.1345417 2.8532133 1.9755003 30
-2.7340903 2.4895754 1.3146315 18
-3.1279657 2.8492258 2.0745192 38
-2.718456 2.4770756 1.4015698 42
-3.1143339 2.8378019 2.1722226 25
-2.7165403 2.4761977 1.4872288 27
-3.1276546 2.8519399 2.27634 26
-1.3243916 1.2106074 1.213613 5
-2.746592 2.5115016 1.5733064 11
-2.7091458 2.4781289 0.97035319 53
-2.7520409 2.5173662 1.6602449 49
-2.7000263 2.4706514 1.0590023 47
-2.7688005 2.5344722 1.7486246 30
-2.7138503 2.4850433 1.1432446 28
-2.9706717 2.7211637 1.8588517 17
-1.3096825 1.1996818 1.3850188 1
-3.1089313 2.8488104 1.9732007 33
-2.7081575 2.4824386 1.3160269 5
-3.1126525 2.8542197 2.0734982 41
-2.6984434 2.4752679 1.4021282 42
-3.0932503 2.8374221 2.1698115 27
-2.6817906 2.4608543 1.4876477 26
-3.0993173 2.8449805 2.2718251 30
-1.3218192 1.2163264 1.2132657 10
-2.6999929 2.4853804 1.5727015 16
-2.731915 2.5156469 1.6596866 37
-2.7691908 2.5517573 1.7493223 30
-2.9162028 2.6891103 1.8538074 11
-1.3159548 1.2134778 1.3838798 5
-3.0906951 2.8510127 1.9719464 31
-1.3118043 1.2104981 1.426037 1
-3.087137 2.8497257 2.0706899 37
-2.6960938 2.4896266 1.401849 45
-3.0736556 2.8382747 2.167702 28
-2.6677396 2.4643064 1.4877406 25
-3.0782936 2.8445485 2.2690465 39
-1.3278928 1.2300725 1.2108346 22
-2.680001 2.4834459 1.5725152 31
-1.3093503 1.2137458 1.2578616 2
-2.7176943 2.5192573 1.6594073 64
-1.317791 1.2219973 1.2987133 12
-2.7841341 2.5826521 1.7511829 19
-1.3209523 1.2257874 1.3405944 30
-2.9160345 2.7069027 1.8547838 6
-3.0724792 2.8531246 1.9706919 34
-1.3107085 1.2175593 1.4258044 15
-3.0645919 2.8477945 2.0683925 38
-2.6644003 2.4767792 1.4029658 60
-3.0714679 2.8551819 2.1692088 24
-2.655159 2.4690537 1.4878105 43
-3.0674012 2.8533993 2.2686994 16
-1.3171861 1.2300159 1.2122238 50
-2.6685491 2.4928188 1.572492 36
-2.7192423 2.5410643 1.6599658 73
-2.8116603 2.6292651 1.7542064 11
-2.9648209 2.7744291 1.8614552 13
-2.6413095 2.4751549 1.403594 66
-2.6393902 2.4742215 1.4879036 49
-3.0372458 2.8481743 2.2641845 24
-2.6515265 2.4934342 1.5723523 40
-2.7020659 2.5418503 1.6595469 69
-2.7985649 2.6344683 1.7538576 17
-1.3075874 1.2313467 1.3412216 100
-3.0078385 2.8334515 1.867313 8
-1.2942556 1.2192179 1.3848561 133
-3.1701832 2.9874282 1.9878347 1
-1.3046539 1.2298738 1.4255718 95
-3.05951 2.8851519 2.0712006 5
-2.6229095 2.4742992 1.4040825 74
-2.616626 2.4692349 1.4881363 50
-3.0148935 2.8460622 2.2610588 35
-1.2875403 1.2184178 1.2174332 118
-2.637434 2.4967144 1.5722593 40
-1.2977896 1.2289764 1.2575603 100
-2.7076879 2.5650125 1.6602449 69
-1.2888656 1.2209517 1.3015214 100
-2.7927117 2.646481 1.7540902 25
-1.2948356 1.2274655 1.3424759 100
-3.054836 2.8969042 1.873659 34
-1.2870995 1.2209845 1.3851815 134
-1.2933269 1.2273215 1.4261533 86
-2.6074438 2.4761012 1.4044316 67
-2.9988208 2.8487604 2.1604691 38
-2.5920446 2.4631989 1.4883922 52
-2.9906654 2.8429987 2.2575858 48
-1.2804277 1.2201873 1.2181278 101
-2.6040955 2.4824462 1.5718637 47
-1.3063697 1.245779 1.2548479 100
-2.7088416 2.584106 1.6607335 61
-1.30469 1.2446122 1.2979474 100
-2.7950122 2.6672406 1.7550205 34
-1.2977371 1.238845 1.3414307 100
-3.0259643 2.8896532 1.8715436 38
-1.2929188 1.2351087 1.3840425 133
-3.0068865 2.8734424 1.9671381 57
-1.2803741 1.2235518 1.426851 81
-3.0068212 2.8743844 2.0653291 38
-2.5987837 2.4851885 1.4044316 61
-2.9988604 2.868778 2.1625786 22
-2.5733166 2.4625533 1.4885552 48
-2.9750314 2.8479731 2.2561967 9
-1.2875295 1.2355593 1.2153494 105
-2.5781012 2.4749024 1.5715845 47
-1.2906045 1.2393758 1.2572589 100
-2.7214265 2.6143165 1.6617805 40
-1.2888935 1.2381653 1.2999897 100
-2.8504684 2.7392364 1.7602535 25
-1.2790654 1.2295827 1.3435212 100
-2.9828124 2.8684192 1.8678012 41
-1.2842903 1.2354683 1.3845307 136
-2.9911053 2.8784044 1.9663018 43
-1.2832886 1.2349359 1.4262695 95
-2.9767623 2.8656027 2.0617552 41
-2.5684974 2.4734471 1.4054786 52
-2.9774363 2.8682547 2.1601677 27
-2.5618243 2.4687462 1.4886017 50
-2.9778349 2.8706429 2.2593224 11
-1.2747109 1.2318337 1.2174332 114
-2.5622571 2.4769368 1.5714681 55
-1.2749 1.2328777 1.2596698 100
-2.766875 2.676609 1.6644329 6
-1.2845638 1.2426565 1.2999897 100
-2.8781934 2.7852697 1.7632771 25
-1.2833403 1.2423408 1.3422668 100
-2.8882949 2.7969978 1.8582009 19
-1.2756745 1.2357829 1.3850188 138
-2.9753256 2.8832905 1.9654655 40
-1.2818377 1.2421869 1.426037 100
-2.9624686 2.871834 2.0609894 43
-2.5512385 2.4740491 1.4058974 70
-2.9517958 2.8634872 2.1568527 28
-2.5445805 2.4693165 1.4887413 50
-2.9805152 2.8933673 2.2624481 11
-1.2661682 1.2321552 1.2184751 118
-2.5492964 2.4816809 1.5713983 58
-1.2748384 1.2414585 1.2587657 100
-2.7603779 2.6890411 1.6645725 4
-1.2728971 1.2404345 1.3012662 100
-2.8798935 2.8064477 1.7642074 25
-1.273299 1.2412589 1.3431031 100
-2.9198999 2.8474219 1.8629197 26
-1.2699262 1.2388364 1.3851815 100
-2.9481609 2.8769882 1.9629569 42
-1.2901347 1.2594292 1.4249904 52
-2.9462464 2.8771296 2.0599682 47
-2.532145 2.4736061 1.4063859 66
-2.9290535 2.8613389 2.1541402 33
-2.5245028 2.4670019 1.4889275 49
-3.0112419 2.943682 2.2725196 9
-1.2686766 1.2436814 1.2167387 58
-2.5287602 2.4798059 1.5712121 53
-2.780463 2.7285392 1.6660383 9
-2.5097888 2.4637806 1.0773827 52
-2.8026211 2.751245 1.7587417 30
-2.5105171 2.4653561 1.1601782 57
-2.9449956 2.8930273 1.8669876 41
-2.5165365 2.4729934 1.2419903 56
-2.9234116 2.8738313 1.9608663 40
-2.5069585 2.4653006 1.3252139 62
-2.9300246 2.882344 2.0589471 47
-2.521637 2.4814684 1.4064558 74
-2.9100912 2.8637345 2.1523321 28
-2.495492 2.4565959 1.4892533 49
-2.4997365 2.4693809 1.5708863 62
-2.588495 2.5588484 1.6571039 4
-2.491298 2.4627647 1.0791696 58
-2.7683845 2.7376316 1.7567648 45
-2.4943941 2.4675472 1.1612235 58
-2.9216194 2.8911834 1.8655231 39
-2.491873 2.4667737 1.2437801 57
-2.9072053 2.8789289 1.9600301 43
-2.4869874 2.4627981 1.3261442 62
-2.8959882 2.8688219 2.0546072 45
-2.4959233 2.473372 1.4072933 72
-2.8883424 2.863246 2.1499209 30
-2.4807906 2.460094 1.4893464 47
-3.0259395 3.0017409 2.2815492 66
-1.3393514 1.3318915 1.1969428 4
-2.4783411 2.4653978 1.5706768 57
-2.4708049 2.4587603 0.99868208 42
-2.5200522 2.5086417 1.6541724 4
-2.4826868 2.4714453 1.0791696 60
-2.7941811 2.7825003 1.759672 18
-2.4744921 2.465009 1.162896 54
-2.8988025 2.8887 1.8640587 33
-2.474777 2.4670131 1.2447565 56
-2.8886878 2.8806324 1.9587758 37
-2.4769619 2.4700546 1.3262604 68
-2.8761268 2.8691063 2.0528202 56
-2.4787846 2.4735985 1.4077121 75
-2.8713334 2.8663261 2.1484141 31
-2.4665282 2.4630854 1.4894395 49
-3.0154424 3.0122859 2.2815492 17
-1.3374776 1.3393459 1.1962482 3
-2.4640687 2.4683723 1.5705838 57
-2.4594145 2.46457 0.99928486 74
-2.4976006 2.5028362 1.6534743 6
-2.4656391 2.4716704 1.0807014 61
-2.8126473 2.8205132 1.7619978 31
-2.4602559 2.4679964 1.1637322 61
-2.8746305 2.8846812 1.8624315 30
-2.4468832 2.4554384 1.2470345 58
-2.8763115 2.8873775 1.9583576 36
-2.4626894 2.4730258 1.3267256 54
-2.8465018 2.859447 2.0492463 48
-2.4546261 2.466651 1.4084799 68
-2.8506553 2.8646202 2.1460032 33
-2.4555252 2.4684162 1.489486 50
-2.8804421 2.8965735 2.2502928 29
-1.3413514 1.3521638 1.1941644 3
-2.4431961 2.4637501 1.5703744 56
-2.4400926 2.4614794 1.0016959 64
-2.4611437 2.4827151 1.6520784 4
-2.4434667 2.4657435 1.0832541 54
-2.8440289 2.8709595 1.7653702 25
-2.4464595 2.4704881 1.1645684 54
-2.8510249 2.8800318 1.8608043 35
-2.4303129 2.4550395 1.2480109 60
-2.8555288 2.8855886 1.9566852 49
-2.4488583 2.4755013 1.3271908 55
-2.8356087 2.86746 2.048991 51
-2.4408121 2.4690917 1.4087591 67
-2.82724 2.8599968 2.1429896 31
-2.4360805 2.4651659 1.4896722 48
-2.8735893 2.9089119 2.2509873 13
-1.3299477 1.3495901 1.1959009 2
-2.4279952 2.464715 1.570258 58
-2.4319165 2.4695575 1.0016959 64
-2.4566689 2.4955642 1.6522878 4
-2.4227519 2.4611104 1.0855517 46
-2.8134856 2.8590281 1.7636259 25
-2.4298847 2.4700797 1.1658227 56
-2.837266 2.8852067 1.8603163 41
-2.4161386 2.4578218 1.2486616 58
-2.8328915 2.8827703 1.9548037 39
-2.4290087 2.4726398 1.3281211 56
-2.8205237 2.8711874 2.0479698 40
-2.4242086 2.4686151 1.4091779 67
-2.8130844 2.8656158 2.1420853 30
-2.4106524 2.4565251 1.4899514 50
-2.8551421 2.9104888 2.2489035 17
-1.3249927 1.3544552 1.1959009 1
-2.4053924 2.4588788 1.5700253 63
-2.4163692 2.4709632 1.0032027 67
-2.4395592 2.4955487 1.6518691 6
-2.404011 2.460042 1.0873387 50
-2.7806644 2.8464694 1.7617652 31
-2.4069183 2.4647386 1.1679133 56
-2.8257844 2.893667 1.8601534 35
-2.4075439 2.4662414 1.2486616 63
-2.811698 2.8812535 1.9531312 37
-2.4008436 2.4610946 1.3297491 56
-2.8016713 2.8729854 2.0464382 38
-2.412354 2.4746213 1.4093175 67
-2.7998033 2.8730743 2.1414826 27
-2.3881054 2.4506023 1.4901841 50
-2.7886145 2.8625934 2.2346644 27
-1.3957386 1.4367739 1.1767995 1
-2.3852179 2.4562018 1.5698391 60
-2.3935254 2.4656162 1.0062164 66
-2.4210885 2.4940095 1.6513804 4
-2.3885014 2.4613016 1.0886152 46
-2.780443 2.86619 1.7625793 29
-2.3761454 2.4502783 1.1712582 56
-2.7943475 2.8825357 1.8577127 41
-2.3846169 2.4607334 1.2502888 63
-2.793318 2.8824801 1.9518769 34
-2.3922389 2.4694598 1.3297491 56
-2.7764468 2.8670723 2.0436301 37
-2.3884084 2.4672296 1.4100853 64
-2.7842569 2.8771474 2.1402771 24
-2.3795362 2.4589241 1.4901841 50
-2.7621725 2.8553221 2.2304969 37
-2.3659515 2.4525833 1.5696529 65
-2.3716114 2.4593079 1.0092301 66
-2.3929467 2.4822991 1.6504033 4
-2.3688836 2.4581971 1.0906575 33
-2.7704217 2.8758774 1.7625793 55
-2.3624868 2.4524148 1.1720945 54
-2.7681808 2.8745563 1.8557601 39
-2.3681488 2.4600112 1.2512652 72
-2.7722061 2.8807466 1.9502044 37
-2.3752985 2.4691622 1.330447 58
-2.7572975 2.8662567 2.0418429 38
-2.3705156 2.4650514 1.4105738 67
-2.760999 2.8721101 2.1372633 25
-2.3667817 2.4628887 1.4902539 52
-2.7480953 2.8606853 2.229455 39
-2.3616621 2.4644403 0.9281354 56
-2.3546097 2.4579382 1.5696064 65
-2.3561747 2.4604316 1.0107369 64
-2.3745914 2.4805307 1.6499146 4
-2.3236825 2.4273508 1.09755 28
-2.7539678 2.8778365 1.7619978 43
-2.351162 2.4577718 1.1725127 54
-2.7553742 2.88132 1.8554347 41
-2.3457735 2.4538531 1.2528923 68
-2.7538884 2.8817782 1.9489501 40
-2.3615799 2.471251 1.3309121 56
-2.7417948 2.870127 2.040822 41
-2.350853 2.4617469 1.4111323 67
-2.726382 2.855988 2.1318388 27
-2.3471246 2.4595611 1.49044 56
-2.7272165 2.8588593 2.2266765 40
-2.339468 2.4584005 0.93160832 53
-2.340502 2.4603467 1.5695133 66
-2.3393965 2.4600453 1.0125451 61
-2.3549018 2.4772148 1.6493562 8
-2.1498246 2.2614861 1.1284393 14
-2.7274005 2.8700638 1.7606024 28
-2.3343482 2.4573121 1.173767 54
-2.739809 2.885139 1.8547838 38
-2.3317044 2.4562438 1.2535431 70
-2.7246432 2.8711753 1.9460232 38
-2.3391948 2.4649971 1.332075 57
-2.7290289 2.876802 2.0403113 34
-2.3394957 2.4670367 1.4112719 70
-2.7136757 2.862618 2.1312361 30
-2.3192666 2.4474165 1.4907658 58
-2.7036757 2.8540623 2.2232037 39
-2.3200498 2.4550996 0.93438673 56
-2.3154197 2.4510565 1.5692341 66
-2.329438 2.4667583 1.0128466 66
-2.342124 2.4810596 1.6491469 8
-2.0588553 2.1809874 1.1440116 21
-2.7187357 2.8810189 1.7607187 25
-2.3162022 2.4553173 1.1752304 58
-2.7215166 2.8859832 1.8538074 40
-2.3149114 2.4556656 1.2545195 66
-2.7105119 2.8763256 1.9453962 42
-2.3123474 2.4546604 1.3335867 61
-2.7094498 2.8762026 2.0385244 42
-2.3281286 2.4722786 1.4114115 70
-2.6955354 2.8634353 2.1294279 28
-2.3107097 2.455497 1.4907658 58
-2.68155 2.8505716 2.220078 42
-2.3083403 2.4607141 0.9350813 52
-2.3013761 2.4532902 1.569141 65
-2.3059361 2.4590099 1.0161617 64
-2.3334494 2.4892201 1.6491469 6
-2.0372834 2.1740448 1.1465645 31
-2.697238 2.8793075 1.7597884 21
-2.3003902 2.4565303 1.1762756 61
-2.6978006 2.8809154 1.8521804 40
-2.3036005 2.4608207 1.2548449 68
-2.6963787 2.8814118 1.9447689 39
-2.2969449 2.4554269 1.3341682 59
-2.6853404 2.8716264 2.0359716 45
-2.3013077 2.4618125 1.4123188 75
-2.6782725 2.8660729 2.1279209 31
-2.2966621 2.4577038 1.4908589 60
-2.663516 2.8512788 2.2179942 46
-2.2869179 2.4558539 1.5690479 65
-2.2915199 2.4616559 1.0173671 64
-2.3079703 2.480197 1.6483092 11
-2.0161693 2.166621 1.1491172 25
-2.6803715 2.8813956 1.7592069 15
-2.2863824 2.4587197 1.1771119 64
-2.6709371 2.8732643 1.8502277 40
-2.2864249 2.4604855 1.2558212 70
-2.6803839 2.885447 1.9439328 41
-2.281565 2.4561162 1.3347496 61
-2.6631525 2.8678994 2.033674 47
-2.2763817 2.4522517 1.4131565 72
-2.6601822 2.8667083 2.1261127 34
-2.2821991 2.4602396 1.490952 56
-2.6557269 2.8639097 2.2186887 43
-1.3909806 1.5037009 1.1688118 3
-2.2701852 2.4550114 1.5689083 65
-2.2735176 2.4594774 1.0194767 67
-2.2884464 2.4764941 1.6477509 9
-1.992439 2.156163 1.1521807 24
-2.6689425 2.8892677 1.7590907 12
-2.2750878 2.4637625 1.1775299 64
-2.6527789 2.8737819 1.8492514 38
-2.2670076 2.456732 1.257123 66
-2.6581585 2.8816268 1.9420512 45
-2.2729781 2.4640648 1.3347496 61
-2.6383336 2.8611372 2.0308659 45
-2.2664528 2.4587138 1.4132262 78
-2.6287229 2.8527124 2.1212907 33
-2.2627575 2.4564238 1.4911382 60
-2.6323709 2.8586743 2.2152157 45
-1.3750643 1.4969426 1.1715901 4
-2.2588959 2.4599755 1.5688617 65
-2.2568963 2.4586592 1.0212851 67
-2.273031 2.4771039 1.6474019 11
-1.9768537 2.1543357 1.1537124 25
-2.6534417 2.8926811 1.7586255 9
-2.2570639 2.461427 1.1789933 61
-2.6400371 2.8800852 1.8489259 40
-2.2530315 2.4587519 1.2577739 65
-2.6319611 2.8732877 1.9395425 45
-2.2522249 2.4587331 1.3357962 58
-2.6229718 2.8644776 2.0298448 43
-2.2524586 2.460712 1.4135054 78
-2.61341 2.8560364 2.1200852 33
-2.2406714 2.4495511 1.4913709 60
-2.6170604 2.862031 2.2138267 45
